      29 0.626137     1442
 56.4844 -4.27606       34
 1396.75 0.977384  61.1562
      31 0.463603  1365.75
 65.8438 -3.15468       32
  1339.5 0.994838  70.4844
      33 0.299433  1329.75
 75.2031 -2.69653       34
 1321.75 0.994838  79.9219
      33 0.135808  1329.75
 84.6406 -2.87543       31
   1345 1.02974 89.2656
        30 -0.0280889    1368.25
 93.9219 -3.71755       34
 1402.5  1.0472 98.5781
       28 -0.190077   1447.25
 103.281 -5.38434       28
 1509.5  1.0821 107.844
       29 -0.350975   1583.75
 112.453 -1.66679       27
   1679 1.13446 117.031
       23 -0.512145      1794
121.656 -5.7465      23
1939.25 1.22173  126.25
       18 -0.673315   2130.75
 130.891 -6.26573       18
 2396.5 1.25664 135.484
       25 -0.835304   2478.75
 140.188 -3.17214       24
2384.75 1.13446 144.906
       28 -0.999474    2306.5
  149.562 -0.431969        25
2245.75 1.11701 154.266
      26 -1.16446     2207
 159.125 -5.23162       27
2181.25 1.09956 163.812
      27 -1.32972     2174
 168.516 -4.84329       26
2175.75  1.0821 173.203
      27 -1.49307  2194.25
 177.906 -5.63741       26
   2233 1.15192   182.5
      27 -1.65534     2287
 187.172 -1.19555       26
   2361 1.13446 191.812
      16 -1.81869  2383.75
 196.578 -5.57633       20
2059.25 1.25664 201.344
      20 -1.98558  1824.75
 206.203 -3.47321       20
1653.75 1.15192 210.938
      24 -2.15303  1520.75
 215.719 -5.12254       27
 1408.5 1.09956 220.453
      29 -2.31829   1327.5
  225.25 -2.12494       31
1258.25 1.06465 229.891
      34 -2.48246   1207.5
  234.609 -0.309796        29
 1165.5  1.0821 239.344
      34 -2.64772   1135.5
244.062 -5.4847      33
 1115.25 0.994838   248.75
      33 -2.81134  1101.75
 253.422 -5.02655       34
 1095.75 0.977384  258.094
      34 -2.97551     1100
 262.844 -5.09636       33
 1106.75 0.994838    267.5
     31 -3.1375 1122.75
 272.109 -5.75522       28
1152.25  1.0821 276.844
      33 -3.30194     1189
  281.453 -0.676315        30
   1234  1.0472 286.109
      31 -3.46257  1292.25
 290.719 -2.69217       28
   1362  1.0821 295.344
      24 -3.62347     1452
 299.797 -5.93848       21
1568.25 1.15192 304.406
      23 -3.78164  1709.75
308.953 -4.6164      26
   1795 1.11701 313.688
      29 -3.94363  1705.25
 318.328 -2.22966       32
   1621 1.02974 323.203
     26 -4.1108    1571
  327.875 -0.261799        28
   1527 1.06465 332.562
      34 -4.27551  1494.75
 337.312 -5.48033       27
  1473 1.0821    342
      29 -4.43968  1464.25
346.656 -5.1269      29
 1464.5 1.06465 351.438
      28 -4.60385     1472
 356.094 -5.44106       34
1494.25 1.06465 0.78125
     29 1.51625  1521.5
  5.45312 -0.178896        26
 1560.5 1.02974 10.0625
     31 1.35454 1612.25
 14.7344 -1.99404       30
1690.25 1.11701 19.3594
     24 1.19228 1774.75
 24.0156 -5.13563       25
   1879 1.15192 28.6406
     23 1.02947 1901.75
33.3906 -5.2578      23
 1762.5  1.0821 38.1875
      22 0.862302  1647.75
 42.9531 -1.23482       25
 1562.5 1.09956 47.6719
      34 0.697586  1486.75
 52.4062 -5.04836       30
 1432.25 0.994838  57.1094
      33 0.534234   1390.5
 61.7812 -3.60847       31
1360.75  1.0472 66.4844
      31 0.369519  1335.25
 71.1094 -2.78816       34
    1327 0.994838  75.8438
      33 0.205894     1324
80.5469 -2.7009      33
  1329.5 0.994838  85.1719
       30 0.0430878   1344.25
 89.8594 -3.23759       30
 1368.75 0.977384  94.5469
       34 -0.119446   1403.75
 99.2031 -4.45495       28
  1454.5 0.994838  103.812
       27 -0.281707   1510.75
  108.422 -0.287979        29
 1587.5 1.16937 113.047
      27 -0.44315  1688.75
 117.656 -3.64337       24
1801.75 1.16937 122.312
       21 -0.603502    1950.5
 126.875 -2.71835       18
2151.75 1.29154 131.484
     17 -0.7644 2412.25
 136.141 -5.03527       23
2477.75 1.13446 140.828
       23 -0.928024   2385.75
   145.5 -1.63625       28
   2309 1.15192 150.203
      25 -1.09247     2251
 155.078 -5.99521       27
 2212.5 1.11701 159.734
      27 -1.25855   2189.5
 164.453 -5.13563       28
2182.25 1.09956 169.156
      27 -1.42244     2187
 173.844 -5.32762       27
2211.75 1.11701 178.547
      25 -1.58443     2249
  183.125 -0.423242        30
2305.25 1.11701 187.797
      25 -1.74778   2379.5
 192.484 -3.01506       17
2349.75 1.29154 197.203
      17 -1.91277  2035.25
      202 -0.322886        21
   1808 1.18682 206.828
      21 -2.08049     1639
  211.641 -0.645772        24
 1511.5 1.13446 216.344
      28 -2.24629  1405.75
 221.109 -3.32049       30
 1322.5 1.06465 225.891
      30 -2.41292   1255.5
 230.562 -1.02974       33
 1205.75 0.994838  235.344
      27 -2.57682  1165.25
 239.984 -5.86867       34
 1135.5 1.02974 244.734
      32 -2.74071     1115
 249.422 -5.21853       33
 1103.75 0.977384  254.125
      34 -2.90434  1098.25
 258.766 -5.06145       34
  1101.5 0.994838    263.5
      33 -3.06905  1110.25
 268.141 -5.37125       34
    1129 0.994838  272.781
      29 -3.23022   1158.5
   277.438 -0.0654498         31
1195.25 1.01229 282.094
      29 -3.39303   1241.5
286.688 -1.7017      30
1301.25  1.0821 291.328
      25 -3.55474  1373.75
 295.969 -4.28478       24
1469.75 1.16937 300.438
      24 -3.71346     1585
305.031 -2.1773      21
1728.25 1.16937 309.594
      23 -3.87327   1767.5
 314.297 -3.34667       29
 1675.5 1.13446 318.984
      33 -4.03744  1603.75
  323.844 -0.781035        27
   1548 1.06465 328.531
      28 -4.20461  1509.25
 333.234 -5.67668       34
  1483 1.0821    338
     29 -4.3685    1460
 342.641 -5.00909       29
1452.25 1.06465 347.391
      29 -4.53349  1455.75
 352.109 -5.01782       29
 1464.5  1.0821 356.766
      34 -4.69684     1484
 1.46875 -5.71595       30
   1513 1.06465 6.10938
     27 1.42381 1556.25
    10.75 -0.894481        31
 1612.5 1.16937 15.3906
     30 1.26155 1683.75
 20.0625 -3.37721       23
1773.25 1.11701 24.6719
    24 1.1001   1880
 29.3281 -1.02102       24
1881.25 1.13446 34.0469
      24 0.934842     1744
 38.8438 -2.79253       23
   1638 1.06465 43.5781
     27 0.76849  1545.5
 48.2656 -6.01266       33
 1482.5 1.09956 53.0156
      30 0.603775     1425
 57.7344 -4.10589       34
1382.25  1.0472 62.3906
      31 0.441241  1355.25
 67.0781 -2.98451       32
    1334 0.994838  71.8281
      34 0.277344  1321.75
 76.4219 -2.62236       34
 1320.25 0.994838  81.1406
      33 0.113719  1329.25
 85.875 -2.9147      32
   1342 1.02974 90.5312
        30 -0.0488147    1370.25
 95.1719 -3.81791       33
   1405 1.06465 99.8281
       28 -0.211894    1457.5
 104.469 -5.54578       28
1516.75 1.13446 109.094
       30 -0.373337    1594.5
113.656 -1.9635      29
1695.75 1.15192 118.312
       24 -0.534234   1816.25
 122.875 -6.16538       22
1971.25 1.20428   127.5
       19 -0.694314   2178.75
  132.109 -0.855211        17
   2441 1.22173  136.75
       23 -0.856302   2479.25
 141.453 -3.22886       25
2387.75 1.13446 146.156
      28 -1.02074  2313.25
  150.812 -0.628319        24
2261.75 1.15192 155.625
     27 -1.1871  2217.5
 160.359 -5.57196       28
   2198 1.06465 165.078
      28 -1.35127     2191
 169.781 -5.27526       27
   2199 1.09956 174.453
      25 -1.51516  2223.25
 179.078 -6.18719       25
2268.75  1.0821  183.75
      29 -1.67715   2327.5
 188.422 -1.93732       25
 2401.5 1.13446 193.062
      17 -1.83969     2316
 197.844 -4.54222       18
2014.25 1.20428 202.578
      20 -2.00767  1789.75
 207.438 -3.06305       24
   1626 1.20428 212.219
      28 -2.17375   1501.5
 216.953 -4.83456       28
   1397 1.09956 221.703
      30 -2.34092   1314.5
 226.516 -1.95477       30
1254.25  1.0472 231.094
      29 -2.50427  1203.25
  235.828 -0.218166        28
   1164  1.0472 240.547
      33 -2.67035   1135.5
 245.359 -5.48906       33
   1115 1.01229     250
      33 -2.83425   1103.5
 254.688 -5.08763       34
    1101 0.977384  259.406
      34 -2.99597  1103.25
 264.031 -5.20981       33
 1112.75 0.994838  268.672
      34 -3.15932     1134
 273.312 -5.90794       28
 1163.75 0.994838  277.984
      30 -3.32076     1200
  282.641 -0.907571        31
   1247 1.11701 287.266
      28 -3.48357     1307
 291.922 -3.08923       30
 1385.5 1.11701 296.516
      28 -3.64365  1479.25
  300.969 -0.126536        25
1599.25 1.16937 305.516
      21 -3.80182   1747.5
 310.172 -4.66439       25
1742.75 1.06465 314.844
      26 -3.96544  1660.75
 319.547 -1.64497       30
   1588 1.09956 324.391
      28 -4.13152     1533
 329.109 -6.03011       33
  1496.5 0.977384  333.828
      27 -4.29678  1470.25
 338.516 -5.03091       29
1449.75  1.0472 343.188
      30 -4.45986     1440
 347.953 -4.70366       31
 1443.5 1.06465 352.641
      29 -4.62458  1455.75
 357.297 -5.13999       34
 1477.75 0.959931  1.98438
     28 1.49471    1507
   6.625 -6.18283       28
 1546.5 1.06465 11.2656
     31 1.33381 1609.75
 15.9531 -1.94604       27
 1680.5  1.0821 20.5625
     23 1.17101 1766.75
 25.2344 -5.07454       25
   1878 1.18682 29.8594
    23 1.0082 1864.5
 34.5781 -4.66003       25
1728.75 1.11701 39.3906
      28 0.842667     1626
  44.0938 -0.920661        27
   1541 1.11701 48.8594
      33 0.676861  1475.75
  53.625 -4.79966       30
 1419.25 0.977384  58.3594
      34 0.512963     1380
 62.9062 -3.42521       29
1349.75 1.01229 67.6562
      33 0.349611   1329.5
 72.3125 -2.68781       33
 1320.25 0.977384  77.0312
      34 0.185987  1319.75
 81.6719 -2.69217       33
  1325.5 0.994838  86.4375
       31 0.0220893   1347.25
 91.0781 -3.26377       30
 1369.75 0.959931  95.7344
       32 -0.140172   1408.25
 100.406 -4.55967       29
 1458.5 1.02974 105.047
       28 -0.301342   1519.25
  109.609 -0.497419        29
1600.75 1.18682 114.234
      28 -0.46224  1705.25
 118.828 -3.97935       24
1822.75 1.18682 123.406
       20 -0.623955      1985
 128.031 -3.27686       19
2189.75 1.23918 132.656
       17 -0.784307    2467.5
 137.312 -5.06582       24
   2485 1.13446 142.016
       25 -0.948205   2398.25
 146.672 -1.78024       30
   2319 1.06465 151.391
      24 -1.11183     2269
 156.203 -6.18283       25
   2232 1.11701 160.891
      27 -1.27845  2208.75
 165.625 -5.53269       28
2206.25 1.09956 170.328
      27 -1.44262     2213
 175.016 -5.77704       25
2239.25 1.15192 179.609
      24 -1.60434  2281.75
 184.266 -1.02538       30
2340.75 1.13446 188.953
      27 -1.76742  2418.75
 193.594 -3.77427       15
2293.75 1.29154 198.359
      19 -1.93295  1995.75
 203.188 -6.07811       19
1779.75 1.15192     208
      26 -2.10067     1621
   212.75 -0.362156        27
1497.75 1.09956 217.516
      30 -2.26647  1394.25
 222.266 -3.13287       29
1313.25 1.13446 226.969
      31 -2.43201  1250.75
  231.656 -0.920661        29
 1202.25 0.994838  236.469
      29 -2.59754   1163.5
 241.172 -5.85558       33
  1134.5 0.977384  245.812
      33 -2.76144     1116
 250.516 -5.23599       34
 1106.25 0.994838  255.188
     34 -2.9237    1103
 259.922 -5.11381       32
 1105.75 0.977384  264.562
      32 -3.08732  1115.75
 269.266 -5.49342       33
   1138 1.06465 273.844
     28 -3.2504 1170.75
  278.594 -0.270526        33
 1206.5  1.0472 283.219
      31 -3.41212  1255.25
 287.875 -2.02022       29
1314.75 1.11701 292.469
      29 -3.57356   1392.5
 297.062 -4.70803       26
 1497.5 1.15192 301.484
      24 -3.73119  1612.75
 306.109 -2.74889       20
1762.25 1.16937 310.734
      26 -3.89345  1725.25
 315.406 -2.74453       23
1642.25 1.01229 320.062
      29 -4.05735  1573.75
  324.938 -0.266163        28
 1518.25 0.994838  329.688
      34 -4.22397  1483.25
 334.422 -5.24908       28
1457.25  1.0472 339.047
      31 -4.38896  1437.25
 343.781 -4.59458       31
   1428 1.02974 348.469
      31 -4.55285     1435
 353.203 -4.66439       30
   1445 1.06465 357.875
     27 1.56698 1469.25
 2.51562 -5.45415       34
   1498  1.0821 7.20312
     28 1.40472    1543
  11.8438 -0.641409        31
 1596.5 1.06465    16.5
     28 1.24327    1673
 21.0938 -3.30304       24
 1761.5 1.13446   25.75
     25 1.08101 1874.25
   30.375 -0.689405        24
 1853.5 1.16937 35.1875
      26 0.915752     1722
 39.9062 -2.36928       30
1614.25 1.15192 44.6562
      27 0.749128  1530.25
 49.4375 -5.70286       27
1468.25 1.06465 54.1406
      31 0.585231  1413.75
 58.8438 -3.86154       30
 1376.5  1.0472 63.5312
      31 0.421333     1348
 68.1875 -2.90597       32
  1325.5 0.994838  72.8438
      33 0.258527   1318.5
 77.5469 -2.58745       33
    1318 0.977384  82.2344
       32 0.0946296   1325.25
 86.9688 -2.89725       31
1342.75  1.0472 91.5625
        30 -0.0681769     1370.5
   96.25 -3.85281       33
1408.75  1.0472 100.891
       27 -0.231802   1459.25
 105.594 -5.59814       27
   1523 1.15192 110.141
       29 -0.391336   1608.25
114.734 -2.0944      26
   1709 1.18682 119.344
       23 -0.552778    1833.5
  123.953 -0.239983        21
 1993.5 1.23918 128.578
       19 -0.713676   2206.75
 133.188 -1.47044       17
 2480.5 1.22173 137.828
       24 -0.875664    2487.5
142.516 -3.3554      26
2403.75 1.15192 147.203
      27 -1.03983  2330.25
  151.906 -0.890118        24
   2275 1.13446  156.75
      26 -1.20564  2238.75
 161.438 -5.93848       26
   2216 1.09956 166.156
      27 -1.36981   2214.5
 170.859 -5.68541       26
 2223.5 1.11701 175.531
      25 -1.53453  2250.75
  180.141 -0.431969        29
   2297  1.0472 184.859
     26 -1.6957  2351.5
   189.5 -2.54382       25
2436.75 1.29154 194.156
      15 -1.85987   2268.5
 198.969 -3.89645       17
   1984 1.22173 203.781
      19 -2.02758     1767
 208.609 -2.77507       25
1611.75 1.15192 213.312
      27 -2.19502  1485.75
 218.156 -4.59022       29
   1387 1.09956 222.875
      28 -2.36138  1308.75
 227.625 -1.85441       30
1247.25 1.01229 232.328
      29 -2.52446   1201.5
  237.062 -0.187623        28
1163.25 1.01229 241.719
      34 -2.68972   1135.5
   246.5 -5.52397       33
  1116.5 0.994838  251.141
      33 -2.85361  1106.75
255.812 -5.1269      33
    1104 0.977384  260.531
      33 -3.01806  1109.25
 265.188 -5.27526       33
 1118.75 0.977384  269.891
      33 -3.17868   1143.5
 274.484 -6.08684       28
1175.25 1.01229 279.219
      33 -3.34176   1210.5
 283.812 -1.12137       30
1259.25  1.0472 288.438
      30 -3.50429  1323.75
 293.109 -3.33358       27
1402.25 1.13446 297.703
      26 -3.66219   1499.5
  302.156 -0.589049        24
 1625.5 1.13446 306.766
     18  -3.822 1778.75
 311.344 -3.93572       28
 1708.5 1.11701 316.016
      30 -3.98644  1625.75
 320.781 -1.00356       27
   1558  1.0821 325.594
      28 -4.15307   1508.5
 330.297 -5.50651       26
 1471.5 1.06465 335.062
      29 -4.31805   1443.5
 339.703 -4.58585       31
1426.75 1.02974 344.375
      32 -4.48086     1422
 349.109 -4.39823       32
1422.75 1.02974 353.781
      31 -4.64503  1435.75
 358.453 -4.73421       29
    1458 0.977384  3.14062
    34 1.4748 1490.5
 7.78125 -5.94285       27
1531.75 1.11701 12.4688
     31 1.31309 1589.75
 17.1094 -1.68424       29
 1662.5  1.0821 21.7188
     24 1.15083 1758.75
 26.3906 -4.96983       24
1867.25 1.22173 31.0469
      25 0.987747  1837.75
 35.7969 -4.12334       26
1709.25 1.15192 40.5312
      30 0.822486   1602.5
  45.2812 -0.589049        27
  1525.5 0.994838  49.9688
      27 0.656407   1458.5
 54.7344 -4.55967       32
    1408 0.977384  59.3594
      30 0.493874  1369.75
 64.1094 -3.23759       31
   1341 1.01229 68.7812
      32 0.330249  1324.75
 73.4531 -2.60054       33
  1317.5 0.977384   78.125
     33 0.16717 1315.25
 82.7969 -2.61799       33
   1325 1.01229 87.5156
        29 0.00245437     1344.5
92.1719 -3.2594      29
  1370.5 0.959931  96.8281
       32 -0.159534   1409.25
 101.484 -4.60331       27
   1461 1.01229 106.141
       28 -0.320977    1528.5
  110.688 -0.628319        31
   1611 1.11701  115.25
       27 -0.481056   1712.75
 119.859 -4.28915       25
   1840 1.20428 124.469
       21 -0.641681    2007.5
 129.062 -3.66955       18
2220.25 1.27409 133.719
       15 -0.803124    2506.5
 138.328 -5.22726       22
 2488.5 1.11701 143.047
       26 -0.966749   2406.75
 147.719 -2.03767       28
 2335.5  1.0821 152.422
      23 -1.13228  2279.25
  157.219 -0.292343        25
 2245.5 1.11701 161.953
      27 -1.29618  2231.75
 166.625 -5.81631       26
   2224 1.11701 171.312
      27 -1.46008     2239
    175.984 -0.00872665          25
 2265.5 1.09956 180.625
      28 -1.62234   2308.5
 185.328 -1.53153       24
2373.25 1.11701 189.969
      24 -1.78569  2451.75
 194.672 -3.15905       16
2246.25 1.27409 199.406
     20 -1.9515 1968.25
 204.234 -5.66359       21
1759.75 1.16937 209.031
      24 -2.11894     1607
  213.766 -0.161443        28
1482.75 1.09956 218.594
      29 -2.28584   1384.5
 223.328 -3.02815       29
   1306 1.13446     228
     30 -2.4511    1246
  232.719 -0.855211        30
  1199.5 0.977384  237.438
      29 -2.61445   1163.5
  242.25 -5.85122       33
  1136.5 0.977384  246.891
      33 -2.77998   1118.5
251.609 -5.2578      34
  1109.5 0.994838  256.234
      33 -2.94252     1106
260.969 -5.1749      33
    1111 0.994838  265.578
      32 -3.10669  1121.25
 270.234 -5.68105       32
 1145.5 1.06465 274.953
      28 -3.26786   1177.5
  279.578 -0.488692        32
   1220 1.06465 284.281
      30 -3.43094   1267.5
 288.875 -2.28638       28
1331.25 1.09956 293.438
      28 -3.59265   1412.5
 298.094 -5.10072       24
1511.25 1.18682 302.531
      21 -3.74973   1638.5
 307.125 -3.18959       25
1784.75 1.13446  311.75
      30 -3.91172  1691.75
 316.469 -1.95041       32
   1603 1.13446 321.156
      27 -4.07916     1542
326.016 -6.0432      33
   1491 1.09956 330.734
      27 -4.24251  1457.25
 335.453 -4.76039       30
   1429 1.02974 340.109
      32 -4.40668     1414
 344.891 -4.21061       34
 1405.25 0.977384  349.562
      33 -4.57085     1413
 354.266 -4.28042       31
1425.25 1.02974 358.938
     29 1.54816  1450.5
 3.65625 -5.15308       35
1483.25 1.09956 8.28125
     28 1.38481 1527.75
  12.9688 -0.462512        30
   1586 1.01229 17.5625
     28 1.22337  1658.5
 22.2656 -3.10669       23
1750.25 1.13446 26.8438
     25 1.06111 1865.25
    31.5 -0.17017       23
1824.75 1.16937 36.2812
     28 0.89639 1703.25
 41.0312 -1.94168       30
1598.25 1.11701 45.7812
      27 0.730311  1515.75
 50.5156 -5.46288       28
   1455 1.06465   55.25
      33 0.564778     1403
 59.8594 -3.69573       30
1366.75 1.06465 64.5938
      30 0.402789  1339.25
   69.25 -2.75762       33
    1320 0.977384  73.9531
     34 0.23971    1313
  78.625 -2.45655       34
 1313.25 0.977384  83.3438
       34 0.0760854   1322.25
 88.0312 -2.85361       31
1341.75 1.02974 92.6406
        29 -0.0864483    1370.25
 97.3281 -3.86154       32
 1410.5 1.06465     102
     27 -0.2498  1464.5
 106.641 -5.68105       28
1530.25 1.13446 111.141
       31 -0.409334    1613.5
 115.734 -2.27329       25
 1719.5 1.18682 120.375
       24 -0.570232    1845.5
  124.969 -0.567232        21
   2016 1.23918 129.562
       18 -0.731402   2233.75
 134.172 -2.10749       14
 2524.5 1.20428 138.781
       25 -0.893118      2495
 143.484 -3.50811       27
 2412.5 1.11701 148.172
      27 -1.05647   2340.5
 152.859 -1.08647       27
   2291 1.13446 157.672
      25 -1.22282  2254.75
 162.375 -6.20901       26
2242.75 1.11701 167.078
      27 -1.38617     2238
 171.781 -6.15229       25
2249.75 1.13446 176.438
      24 -1.54843     2279
  181.047 -0.868301        29
 2327.5 1.11701 185.734
      26 -1.71179   2386.5
 190.391 -3.04124       24
   2469   1.309 195.062
      16 -1.87568     2234
 199.859 -3.28558       20
   1960 1.20428 204.641
      20 -2.04231   1750.5
 209.438 -2.53509       26
 1597.5 1.13446 214.203
      26 -2.20839  1477.75
 218.953 -4.45495       28
   1383 1.09956 223.703
      29 -2.37501     1304
 228.344 -1.78024       31
1246.25 1.01229 233.109
      30 -2.53836  1199.25
 237.797 -0.18326       28
 1163.5  1.0472 242.469
      34 -2.70335   1136.5
 247.188 -5.54142       32
  1118.5 0.994838  251.969
      34 -2.86698   1110.5
 256.594 -5.21853       33
 1108.75 0.977384  261.234
      34 -3.03006     1114
 265.953 -5.37125       34
    1127 0.994838  270.531
      30 -3.19095   1151.5
 275.266 -6.20028       34
1182.25 1.06465 279.859
      33 -3.35403  1221.75
 284.578 -1.33081       26
1273.25  1.0821 289.188
      27 -3.51657  1335.75
 293.797 -3.57792       27
1416.75 1.16937 298.391
      24 -3.67446   1524.5
  302.812 -0.959931        20
   1647 1.16937 307.453
      22 -3.83509  1767.25
312.062 -3.3074      27
1667.25 1.06465 316.766
     30 -3.9998  1588.5
  321.516 -0.484329        29
1527.75  1.0472 326.312
      33 -4.16643  1481.75
 331.062 -5.06582       29
1443.75  1.0472 335.812
      32 -4.33087  1415.75
 340.469 -4.16261       34
 1403.75 0.942478  345.188
      36 -4.49586   1400.5
 349.875 -4.02735       35
  1402.5 0.977384  354.609
      32 -4.65839  1414.25
 359.281 -4.47241       29
1438.25  1.0821  3.9375
    27 1.4609   1473
 8.60938 -5.68541       28
1517.25  1.0821 13.2344
     30 1.29918 1575.25
 17.8438 -1.32645       25
1653.75  1.0821 22.5156
     25 1.13746 1743.75
 27.1094 -4.73421       25
 1860.5 1.16937 31.7812
      23 0.974112  1816.25
 36.5625 -3.78736       27
1693.25 1.16937 41.3281
     28 0.80776 1588.25
  46.0938 -0.279253        26
  1513.5 0.994838  50.8125
      28 0.642499   1449.5
 55.6094 -4.41132       33
    1398 0.977384  60.2344
      31 0.478875  1365.25
 64.8906 -3.11541       32
1338.25 1.01229 69.6406
      33 0.315523  1319.25
 74.25 -2.522     33
1309.25 1.01229 78.9219
      33 0.151353   1313.5
 83.6562 -2.59181       34
1321.75 1.02974 88.2969
        32 -0.0114537    1341.25
 92.9688 -3.25504       29
  1373.5 0.977384  97.6562
      31 -0.17426     1410
 102.328 -4.60767       27
 1465.5 1.02974 106.953
       26 -0.335158   1530.25
  111.469 -0.663225        29
1613.75 1.09956 116.094
       25 -0.496055    1720.5
 120.703 -4.36769       24
1851.75 1.20428 125.312
      20 -0.65668  2020.75
129.906 -4.0448      17
 2239.5 1.27409   134.5
       14 -0.817032   2529.25
139.141 -5.4367      24
   2511 1.15192 143.859
       27 -0.980657    2417.5
 148.516 -2.35619       25
 2348.5 1.02974 153.219
      29 -1.14619  2301.25
  158.031 -0.554142        25
 2270.5 1.11701  162.75
      26 -1.31036  2246.75
 167.422 -6.20901       26
2249.25 1.11701 172.125
      26 -1.47371     2265
  176.781 -0.466876        29
   2294 1.02974 181.406
      28 -1.63625  2337.75
 186.062 -2.09003       26
2404.25 1.11701 190.734
      25 -1.79905   2480.5
195.422 -2.6529      16
2221.75 1.25664 200.203
      20 -1.96486     1946
     205 -5.41488       21
1744.75 1.16937  209.75
      25 -2.13203   1595.5
   214.516 -0.0654498         27
 1476.5 1.09956 219.297
      28 -2.29784     1383
 224.031 -3.00197       29
 1304.5 1.09956 228.688
      30 -2.46255     1246
  233.484 -0.885755        29
    1201 0.977384  238.188
      29 -2.62808   1164.5
 242.953 -5.89921       34
  1136.5 0.977384  247.609
      33 -2.79171  1119.75
 252.312 -5.28398       34
  1111.5 0.977384  256.938
      34 -2.95506   1109.5
 261.672 -5.26217       33
   1115 1.01229 266.266
      34 -3.11732     1133
 270.922 -5.81631       29
   1153 1.06465 275.641
     33 -3.2804  1186.5
  280.266 -0.628319        32
1222.75 1.02974 284.938
      25 -3.44157   1280.5
 289.516 -2.43037       27
1343.75  1.0821 294.172
      27 -3.60301  1425.75
298.766 -5.3538      24
1525.75 1.13446 303.188
      23 -3.76146  1659.25
 307.766 -3.52993       25
 1746.5 1.06465 312.469
      25 -3.92345   1654.5
 317.156 -1.43117       28
1573.25 1.09956 321.844
      27 -4.09116   1514.5
 326.703 -5.59814       28
1469.75 1.06465 331.422
      30 -4.25506   1431.5
 336.156 -4.28042       34
 1407.25 0.977384  340.828
      36 -4.41923  1392.75
345.562 -3.8659      36
    1387 0.959931  350.266
      35 -4.58394  1392.25
     355 -3.97062       34
1407.25 1.02974 359.625
     30 1.53644 1430.75
 4.29688 -4.79966       28
 1465.25 0.977384        9
     28 1.37445 1510.25
  13.5625 -0.187623        25
    1568 0.994838    18.25
     23 1.21137 1642.25
  22.875 -2.85361       25
1738.25 1.13446 27.5312
     25 1.04992 1855.75
 32.1562 -6.06938       24
1804.25 1.13446 36.9531
      27 0.884391  1687.75
 41.6719 -1.67552       28
1581.25 1.11701 46.4688
      26 0.718857   1503.5
 51.1875 -5.31889       28
1443.75  1.0472 55.8906
      35 0.554687  1392.75
 60.5156 -3.60847       30
1357.75 1.06465 65.2344
      33 0.391336  1333.25
 69.9219 -2.67035       33
    1315 0.977384  74.5938
      31 0.228256     1309
 79.2969 -2.41728       34
    1313 0.977384       84
       32 0.0651771   1320.75
 88.6562 -2.79689       31
1340.25  1.0472 93.3281
        29 -0.0973566    1370.25
 97.9688 -3.86154       31
 1412.5 1.06465 102.609
       27 -0.260709   1469.25
 107.156 -5.70723       26
 1530.5 1.15192 111.766
       31 -0.420788      1617
 116.391 -2.40855       25
1723.75 1.16937     121
       23 -0.581686    1855.5
  125.594 -0.815941        21
 2031.5 1.25664 130.203
       18 -0.742856    2250.5
 134.875 -2.61363       15
 2551.5 1.16937 139.484
       22 -0.904026      2512
 144.172 -3.74809       27
2423.25 1.15192 148.844
      25 -1.06792   2360.5
 153.547 -1.42681       29
 2308.5  1.0821 158.375
      24 -1.23373  2277.75
  163.062 -0.309796        24
   2262 1.11701 167.797
     26 -1.3979  2263.5
  172.453 -0.327249        25
2276.25 1.15192 177.141
      30 -1.56098   2305.5
 181.734 -1.37881       27
 2351.5 1.11701 186.438
      27 -1.72379  2417.75
 191.109 -3.56047       25
   2506 1.29154 195.797
      17 -1.88768  2206.75
 200.578 -2.98888       20
   1937 1.20428 205.391
     23 -2.0554 1738.75
 210.156 -2.29511       24
1592.25 1.15192 214.922
     24 -2.2223    1474
219.719 -4.3546      25
1375.75 1.06465 224.422
      28 -2.38837  1302.75
 229.109 -1.71915       30
1244.75 1.01229 233.859
      29 -2.55145   1198.5
 238.641 -0.17017       29
 1163.5  1.0472 243.375
      33 -2.71726     1139
     248 -5.59378       32
 1122.25 0.994838  252.703
      34 -2.88034  1113.75
 257.406 -5.26217       34
 1111.25 0.994838  262.047
      34 -3.04424     1117
 266.766 -5.44543       34
  1133.5 0.994838  271.406
     29 -3.2065  1158.5
   276.047 -0.0523599         33
    1190 0.994838  280.703
      30 -3.36958  1229.25
 285.344 -1.50098       30
1286.25  1.0472 289.984
      26 -3.53075     1350
 294.609 -3.80045       27
1435.75  1.0821 299.047
      24 -3.68783     1541
 303.656 -1.31772       23
   1675 1.22173 308.219
     26  -3.849 1728.75
 312.906 -2.66163       22
1639.25 1.02974 317.594
      26 -4.01344   1558.5
 322.281 -6.23955       32
    1497 0.994838  327.203
      28 -4.18006  1454.25
 331.875 -4.59458       31
  1415.5 0.977384  336.562
      35 -4.34532     1394
341.328  -3.783      35
    1381 0.977384  345.969
      35 -4.50922  1379.25
 350.688 -3.64337       36
 1381.75 0.959931  355.359
      35 -4.67312     1397
0.046875 -4.15388       30
 1420.5 1.06465 4.70312
     29 1.44781 1456.75
 9.35938 -5.37998       28
1503.75  1.0821 14.0312
     25 1.28554 1559.75
  18.625 -1.15192       23
 1638.5  1.0821 23.2656
     26 1.12356    1730
 27.9219 -4.47677       25
1846.25 1.16937 32.6094
      24 0.960204   1795.5
 37.3906 -3.45139       25
1675.75 1.06465  42.125
     24 0.79467 1570.75
   46.8438 -0.0305433         31
1497.75 1.09956 51.5625
      29 0.628591     1437
 56.2812 -4.18443       34
 1389.5 1.06465 60.9375
      30 0.465512   1354.5
 65.6562 -2.97579       33
1329.75 1.01229 70.3906
      33 0.302433  1313.25
 75.0469 -2.42164       32
 1307.25 0.994838  79.7344
      33 0.137717   1311.5
 84.4375 -2.50891       33
 1322.75 0.994838  89.0625
        31 -0.0253618    1340.25
93.7188 -3.2594      29
  1370.5 0.977384   98.375
       31 -0.186805   1413.25
 103.016 -4.68185       27
 1469.5 1.02974 107.547
       27 -0.347157    1532.5
  112.219 -0.785398        29
1624.25 1.09956 116.828
       25 -0.507509    1728.5
 121.391 -4.62076       22
1860.75 1.16937 126.016
       20 -0.668407    2038.5
130.609 -4.4375      17
2265.75 1.27409 135.234
      16 -0.82985     2565
 139.859 -5.58069       21
 2518.5 1.16937 144.547
       26 -0.992929      2434
 149.219 -2.57872       24
2365.75  1.0821 153.906
      30 -1.15901  2314.75
  158.719 -0.850848        23
2283.75 1.13446 163.422
      25 -1.32236  2272.25
  168.109 -0.349066        26
2273.25 1.15192 172.797
      24 -1.48626     2287
  177.484 -0.877028        31
2317.25  1.0472 182.094
      27 -1.64852   2368.5
 186.766 -2.64417       26
   2437 1.16937 191.438
      22 -1.81051     2523
196.125 -1.9984      17
2200.25 1.25664 200.891
      17 -1.97795     1927
 205.734 -5.10945       21
   1730 1.22173 210.469
      24 -2.14376  1584.75
215.219 -6.1741      24
1469.75  1.0821     220
     27 -2.3112 1374.75
224.797 -2.8667      29
1302.75  1.0472 229.438
      30 -2.47428   1245.5
  234.141 -0.837758        30
 1198.75 0.977384  238.844
      28 -2.64008   1164.5
 243.594 -5.93848       34
  1139.5 0.959931  248.328
      32 -2.80398  1122.25
     253 -5.36689       33
 1112.75 0.994838  257.625
      33 -2.96761   1112.5
 262.297 -5.32762       32
 1118.75 0.977384  267.016
      34 -3.13041     1139
 271.641 -5.90358       29
   1161  1.0821 276.359
      32 -3.29322     1194
  280.984 -0.728675        30
1234.75  1.0472 285.625
      30 -3.45384  1289.25
 290.203 -2.67035       28
   1356  1.0472 294.859
      25 -3.61583  1439.75
 299.344 -5.71159       24
   1551 1.15192 303.922
      24 -3.77373  1688.25
 308.531 -4.00553       25
1713.75  1.0821 313.188
      29 -3.93681  1617.25
  317.906 -0.925025        27
1543.25 1.09956 322.578
      32 -4.10289  1484.75
   327.5 -5.07018       29
   1442 1.06465 332.141
      33 -4.26788     1408
 336.906 -3.88336       33
 1381.75 0.977384  341.547
      30 -4.43177   1369.5
 346.281 -3.47321       31
1366.25 1.02974 350.969
      31 -4.59622   1373.5
 355.656 -3.65646       36
  1386.5 0.959931 0.359375
     34 1.52416 1411.75
 5.04688 -4.47241       29
1446.25 1.09956 9.70312
     33  1.3619 1494.75
 14.3438 -6.08247       26
   1556 1.06465 18.9688
    28 1.1991   1626
23.625  -2.57     24
1722.75 1.16937 28.2656
     26 1.03793  1841.5
 32.9062 -5.72904       23
1786.25 1.11701 37.6719
      27 0.872119  1665.75
 42.4062 -1.45735       24
   1567 1.11701 47.1875
      30 0.705495   1492.5
 51.9062 -5.06145       29
1431.25 1.02974 56.6406
      34 0.541325  1388.75
 61.2812 -3.45575       28
1353.25 1.02974 65.9688
      32 0.377427  1324.75
 70.6875 -2.59181       31
 1309.75 0.994838  75.3125
      33 0.214076  1304.75
 79.9844 -2.39983       33
    1308 0.977384    84.75
      33 0.051269  1319.25
89.3906 -2.7838      32
 1339.5 1.02974 94.0781
       30 -0.112628   1370.25
 98.7656 -3.84845       30
1416.75 1.06465 103.391
       26 -0.274889    1470.5
 107.938 -5.80322       27
 1536.5  1.0821 112.594
       29 -0.434696    1624.5
 117.188 -2.58309       24
   1729 1.16937 121.797
       23 -0.595594   1863.25
  126.438 -0.986111        21
 2040.5 1.29154 131.062
       17 -0.755946   2270.75
 135.656 -2.84925       16
2582.75 1.16937 140.266
       22 -0.918207    2524.5
 144.984 -3.95753       24
2441.75 1.09956 149.672
      25 -1.08238   2374.5
 154.359 -1.67552       28
2328.75  1.0472 159.172
      29 -1.24873  2297.25
  163.859 -0.606502        24
   2281 1.15192 168.547
      24 -1.41154  2280.25
   173.25 -0.615229        30
 2299.5 1.02974 177.938
     31 -1.5738  2334.5
 182.531 -1.74969       27
 2380.5 1.09956 187.156
      26 -1.73688  2447.25
 191.812 -4.09716       19
2532.75 1.29154 196.562
      16 -1.90159  2185.75
201.344 -2.6529      18
 1922.5 1.22173 206.109
      22 -2.06876     1730
 210.859 -2.18166       23
   1583 1.13446 215.656
      25 -2.23402   1469.5
 220.391 -4.27606       25
 1374.5 1.06465 225.188
      29 -2.39956     1302
 229.859 -1.71915       30
1244.75 1.01229 234.578
      31 -2.56427  1199.25
  239.25 -0.19635       30
 1166.5 1.06465 243.922
      33 -2.72844   1139.5
 248.641 -5.58942       35
   1126 1.01229 253.328
      33 -2.89207     1117
 258.047 -5.31889       33
 1115.5 1.01229 262.688
      32 -3.05514  1120.25
 267.359 -5.62869       33
 1138.5 1.06465 271.938
      29 -3.21741  1164.75
 276.672 -0.19635       29
  1198.5 0.977384  281.266
      29 -3.37967     1241
 285.906 -1.67988       30
1293.75 1.06465 290.578
      27 -3.54165  1362.75
 295.188 -4.05789       25
1450.25 1.11701 299.625
      23 -3.69901  1552.75
 304.234 -1.51407       25
1692.25 1.16937 308.844
     27 -3.8599  1696.5
 313.516 -1.97659       32
1602.75 1.11701 318.188
      28 -4.02435  1529.75
 323.125 -5.72032       26
   1475 1.06465 327.812
      30 -4.19206  1426.25
 332.531 -4.16261       34
 1395.75 0.959931  337.234
      30 -4.35569  1370.25
 341.906 -3.37285       30
1358.75 1.02974 346.609
      31 -4.52013   1356.5
 351.297 -3.32049       31
   1363 1.02974 356.016
     35 -4.6843 1378.75
 0.71875 -3.82663       36
1402.25 1.02974 5.35938
     30 1.43608 1437.75
10.0312  -5.044      33
 1484.5  1.0821 14.7031
     27 1.27382 1543.25
  19.2812 -0.802851        28
1617.75 1.11701 23.9219
    25 1.1121   1715
 28.5938 -4.24988       26
1836.25 1.15192 33.2656
     21 0.94875  1777.5
 38.0156 -3.21577       24
 1659.5  1.0472 42.7812
      25 0.782126  1563.25
 47.5312 -6.20028       32
   1489 1.09956   52.25
      29 0.616592  1426.25
 56.9688 -4.06662       35
   1382  1.0472 61.6406
      30 0.453786   1348.5
 66.3281 -2.86234       32
    1324 0.977384  71.0469
      32 0.290434   1308.5
 75.7656 -2.37365       32
 1303.75 0.994838   80.375
      32 0.126264   1307.5
  85.125 -2.46528       34
    1319 0.994838  89.7188
        32 -0.0368155       1340
 94.4062 -3.23759       30
    1370 0.959931  99.0781
       31 -0.199622   1413.25
  103.75 -4.74293       26
1471.25 1.06465 108.328
       26 -0.359156   1536.25
  112.891 -0.868301        28
   1625 1.09956   117.5
       24 -0.520599    1730.5
 122.141 -4.70803       22
 1870.5 1.18682  126.75
       21 -0.680951   2047.25
 131.391 -4.66439       16
   2284 1.27409 135.984
       16 -0.842394      2593
 140.609 -5.90794       21
2530.75 1.13446 145.297
      25 -1.00602  2446.25
 150.016 -2.85798       25
 2380.5 1.13446 154.812
      29 -1.17237     2337
   159.5 -1.16064       31
   2305  1.0472 164.203
      30 -1.33681     2293
  168.938 -0.728675        29
 2293.5 1.06465 173.594
      31 -1.50044   2310.5
 178.297 -1.38317       31
2343.25 1.11701 182.922
     27 -1.6627  2399.5
 187.562 -3.16777       25
   2458 1.16937 192.234
      13 -1.82496   2533.5
196.969 -1.4748      17
   2172 1.25664 201.766
     18 -1.9924 1909.75
 206.562 -4.86074       22
   1722 1.22173 211.328
      24 -2.15984  1580.25
 216.094 -6.09993       25
   1463 1.09956 220.875
      28 -2.32538  1371.25
 225.594 -2.84489       30
1300.75  1.0472 230.297
      30 -2.49064  1243.75
      235 -0.885755        29
    1199 0.977384  239.766
      29 -2.65426  1164.75
 244.469 -5.96903       33
 1141.75 0.959931  249.203
      35 -2.81898  1126.75
253.797 -5.4367      33
    1118 0.994838  258.562
      32 -2.98206   1117.5
 263.172 -5.39307       35
  1124.5 0.977384  267.922
      33 -3.14541     1144
 272.484 -6.02575       28
  1170.5 0.977384  277.188
      29 -3.30685  1205.25
  281.781 -0.872665        30
   1246  1.0472 286.422
      30 -3.46911  1302.75
291.062 -2.8667      26
   1372 1.09956 295.703
      24 -3.63028  1454.75
 300.188 -5.97339       21
 1566.5 1.13446  304.75
      22 -3.78818  1706.75
 309.344 -3.42521       29
1678.25  1.0821 314.062
      27 -3.95126   1581.5
  318.781 -0.248709        27
   1514 1.01229 323.641
      27 -4.11843  1456.75
 328.328 -4.62949       33
    1412 0.977384  333.078
      33 -4.28315  1380.75
 337.781 -3.46448       30
 1358.5 1.02974 342.438
      30 -4.44704  1349.25
 347.234 -3.10232       30
   1348 1.02974 351.938
      29 -4.61203     1354
 356.578 -3.28558       30
  1368.5 0.977384  1.23438
     34 1.50862 1392.75
 5.95312 -4.16697       30
1428.25  1.0821 10.5781
     33 1.34609 1478.25
 15.2031 -5.85122       28
 1537.5 1.09956 19.9062
     31 1.18246 1611.25
24.4844 -2.2602      28
1712.25 1.18682 29.1875
     24 1.02102 1833.25
 33.8438 -5.30144       22
 1762.5 1.09956 38.6094
      22 0.856029  1642.75
 43.3594 -1.19119       26
1555.25 1.09956 48.1094
     33 0.68995  1481.5
 52.7969 -4.81711       30
    1422 0.994838  57.5781
      33 0.527144  1378.25
 62.2188 -3.27686       31
    1342 0.994838  66.8281
      32 0.362701   1319.5
 71.5469 -2.50455       32
  1307.5 0.994838  76.2656
      34 0.199895  1302.25
 80.9062 -2.32565       34
1307.25 1.01229 85.6719
       34 0.0343612   1318.25
 90.3281 -2.76635       32
1339.25  1.0472      95
       28 -0.128173    1373.5
  99.625 -3.88772       30
1414.25  1.0821 104.328
       31 -0.290706      1476
 108.859 -5.83813       27
 1543.5  1.0821 113.469
       28 -0.450786   1627.25
118.109 -2.7838      24
1743.25 1.16937 122.719
       23 -0.611138   1881.25
 127.297 -1.38317       20
2064.75 1.23918 131.906
       18 -0.772035    2303.5
 136.547 -3.48193       17
2624.25 1.16937 141.188
       22 -0.933751    2533.5
 145.891 -4.11898       26
2447.75 1.09956 150.562
      25 -1.09792  2385.75
 155.375 -2.00277       30
 2339.5 1.06465 160.062
    32 -1.264 2311.5
  164.797 -0.999201        32
2302.25 1.01229 169.469
      30 -1.42817  2305.25
 174.156 -1.07338       31
2326.75  1.0821 178.812
      26 -1.58989   2362.5
 183.438 -2.29947       28
2413.75 1.13446 188.125
      25 -1.75378   2480.5
 192.781 -4.81711       15
 2490.5 1.29154   197.5
      16 -1.91795   2147.5
 202.297 -2.14675       20
1895.25 1.20428 207.125
      23 -2.08594   1710.5
211.875 -1.8675      21
 1566.5 1.15192 216.641
      24 -2.25229  1453.25
 221.391 -4.14516       28
1367.25 1.06465 226.109
      30 -2.41728  1293.75
 230.797 -1.69733       31
1243.75 1.01229 235.578
      30 -2.58091   1198.5
 240.219 -0.19635       28
1164.25  1.0472 244.969
      33 -2.74617  1139.75
 249.719 -5.65487       35
1126.75 1.01229 254.328
      32 -2.90979  1119.25
 259.094 -5.41052       33
   1119 1.01229 263.734
      34 -3.07396  1131.25
 268.406 -5.74213       33
   1146  1.0821 273.094
     29 -3.2354 1175.25
  277.719 -0.349066        34
   1208  1.0472 282.359
      31 -3.39767  1252.75
 287.062 -1.87623       29
1306.75  1.0821 291.641
      25 -3.55965     1377
 296.266 -4.36332       23
 1469.5 1.11701 300.734
      24 -3.71837  1582.25
 305.375 -1.98531       23
   1720 1.06465 309.953
      25 -3.88009   1654.5
 314.688 -1.40499       24
   1565 1.09956 319.422
      33 -4.04426  1495.75
 324.219 -5.21853       29
  1442 1.0472    329
      33 -4.21224     1400
 333.672 -3.69573       30
   1368  1.0472 338.422
      31 -4.37614   1349.5
343.141 -2.9627      32
 1337.75 0.994838  347.844
      33 -4.54058     1337
 352.516 -2.92343       33
 1340.5  1.0472 357.203
      31 -4.70475  1357.75
 1.90625 -3.47757       35
 1385.75 0.977384   6.5625
     30 1.41508    1422
 11.1875 -4.79093       26
1473.75 1.01229 15.8281
     28 1.25391 1529.25
  20.4844 -0.654498        31
 1610.5 1.15192 25.0938
     27 1.09219    1707
   29.75 -4.02735       24
 1825.5 1.16937  34.375
      23 0.928024     1749
39.2031 -2.8667      23
 1638.5 1.06465 43.9062
      26 0.762763  1544.25
 48.7031 -5.83813       32
   1476  1.0821 53.3906
      29 0.596684  1413.75
  58.125 -3.87027       29
   1373 1.02974 62.7656
      31 0.434151  1339.75
 67.4844 -2.75762       33
1317.75 1.01229 72.0938
      32 0.270799  1300.75
76.8438 -2.2602      34
 1299.25 0.977384  81.4844
     33 0.10772 1306.25
 86.2031 -2.41728       34
  1318.5 0.994838  90.8438
        31 -0.0561778    1339.75
    95.5 -3.25068       28
 1373.25 0.977384  100.156
       30 -0.217893    1417.5
104.766 -4.7822      32
1476.25 1.11701 109.344
       27 -0.378791      1544
  114.031 -0.938114        23
1638.75 1.09956 118.625
      24 -0.53887     1747
 123.188 -5.01782       22
1886.25 1.22173 127.797
       19 -0.700041   2075.25
 132.422 -5.20981       18
2316.75 1.29154 137.047
       19 -0.861484    2634.5
 141.703 -5.99957       23
2543.25 1.15192 146.391
      25 -1.02511  2456.25
 151.062 -3.03251       25
2398.75 1.13446 155.859
      27 -1.19091   2349.5
 160.562 -1.48353       31
 2320.5 1.01229  165.25
      31 -1.35454  2311.25
 169.969 -1.08647       31
2312.75 1.02974 174.672
      30 -1.51871  2336.75
 179.266 -1.78024       26
2371.25  1.0821 183.938
      29 -1.68042     2432
 188.609 -3.62592       25
2492.75 1.18682 193.312
      16 -1.84378     2478
  198.031 -0.711222        16
 2128.5 1.23918 202.859
      21 -2.01149  1883.25
 207.625 -4.58149       23
1705.75 1.16937 212.406
      22 -2.17703  1566.25
 217.141 -5.88612       26
   1455 1.06465 221.906
      27 -2.34365     1363
 226.656 -2.74889       30
 1293.5  1.0472 231.297
      29 -2.50837     1239
      236 -0.824668        30
   1198  1.0821 240.781
      28 -2.67254  1164.75
 245.453 -5.98212       34
  1143.5 0.977384  250.156
      36 -2.83561  1129.25
 254.797 -5.47597       32
   1121 1.01229   259.5
      33 -3.00006     1120
 264.219 -5.51524       34
    1135 0.994838  268.812
      29 -3.16259   1151.5
 273.469 -6.18719       28
 1177.75 0.994838  278.219
      33 -3.32458  1210.25
 282.812 -1.06465       31
1257.25 1.06465 287.453
      30 -3.48711  1313.75
 292.109 -3.12414       30
1386.25 1.09956 296.703
      28 -3.64856  1477.25
   301.156 -0.0698132         24
1592.25 1.22173 305.781
      21 -3.80564  1727.75
 310.375 -2.78816       23
   1638  1.0821 315.078
      27 -3.97008   1545.5
 319.828 -6.02139       33
 1482.5 1.09956 324.719
      29 -4.13752  1426.25
 329.438 -4.11898       34
1385.75 1.06465 334.156
      31 -4.30115  1356.75
 338.797 -3.05869       31
   1337 1.01229 343.547
      32 -4.46559   1325.5
 348.25 -2.7358      33
 1324.5 1.01229 352.906
      32 -4.63085  1336.25
 357.609 -2.95833       29
 1352.5 1.02974 2.28125
    33 1.4898   1378
  6.9375 -3.87899       31
 1413.5 1.06465 11.6094
     27 1.32809  1460.5
 16.2656 -5.59814       28
1526.25 1.11701  20.875
     28 1.16528    1602
 25.5781 -1.97659       28
1705.75 1.15192 30.1719
     25 1.00384 1823.75
 34.8594 -4.81275       24
   1741 1.11701  39.625
      28 0.837213  1627.75
  44.3594 -0.868301        26
1536.75 1.11701 49.1094
      26 0.672497   1469.5
 53.8906 -4.65567       32
 1408.75 0.994838  58.5625
      30 0.507782  1368.25
 63.2344 -3.18959       31
   1335 1.01229 67.9219
      34 0.344975   1314.5
 72.6406 -2.36492       33
    1300 0.994838  77.3125
      33 0.181623     1298
      82 -2.24275       33
1303.25 1.01229 86.6719
      32 0.017726     1318
 91.3594 -2.71835       31
1340.25  1.0472 95.9688
       29 -0.144535   1375.25
 100.688 -3.94881       30
1418.75  1.0821 105.297
       32 -0.306796   1477.75
 109.812 -5.99957       27
1547.25 1.06465 114.469
       23 -0.467694      1641
 119.078 -2.92779       23
1756.75 1.16937 123.672
       22 -0.628046      1900
 128.281 -1.72788       20
 2087.5 1.25664 132.922
       18 -0.789216      2336
 137.516 -4.08407       21
   2644 1.15192 142.156
       22 -0.951204    2545.5
 146.844 -4.46368       26
2459.75 1.09956 151.516
     26 -1.1151  2404.5
 156.391 -2.22966       26
2361.75  1.0472 161.047
      28 -1.28118     2336
  165.75 -1.38754       31
2326.25 1.02974 170.469
      31 -1.44535  2330.25
 175.156 -1.49662       28
 2348.5 1.13446 179.781
      26 -1.60761   2385.5
 184.438 -2.87979       28
 2440.5 1.15192 189.109
      24 -1.77069  2517.75
 193.766 -5.44106       16
   2448   1.309 198.516
      17 -1.93568  2113.75
 203.375 -1.64497       20
1871.75 1.23918 208.125
      24 -2.10312  1695.25
212.922 -1.6057      24
 1556.5  1.0821 217.641
     26 -2.2692  1448.5
 222.406 -4.04044       28
 1360.5  1.0472 227.094
      30 -2.43419  1291.75
 231.875 -1.56207       30
  1238.5 0.977384  236.578
      30 -2.59945   1197.5
  241.297 -0.178896        29
 1166.5  1.0472 246.047
      33 -2.76417   1143.5
 250.703 -5.64614       36
  1129.5 0.959931  255.359
      32 -2.92779   1121.5
 260.078 -5.47597       32
    1123 0.959931  264.734
      34 -3.09141     1137
 269.406 -5.83813       29
1153.25  1.0472 274.109
      33 -3.25286  1181.75
  278.719 -0.514872        32
   1218 1.06465 283.406
      30 -3.41512  1262.25
 287.984 -2.13803       30
1322.75 1.09956 292.688
      29 -3.57711   1396.5
297.266 -4.6993      28
 1495.5 1.13446  301.75
      27 -3.73473  1607.75
 306.281 -2.57436       25
   1715 1.13446 310.969
      30 -3.89808  1612.75
  315.688 -0.637045        27
1528.25 1.01229 320.375
      27 -4.06198   1460.5
 325.234 -4.59458       33
 1409.25 0.994838  329.938
     30 -4.2297  1369.5
 334.703 -3.23759       30
   1344 1.02974 339.344
      33 -4.39305  1327.25
344.062 -2.6049      33
 1317.25 0.994838  348.797
      34 -4.55749  1314.75
353.469 -2.6049      33
   1322 1.01229 358.125
    30 1.5618   1341
 2.84375 -3.22886       30
  1368.5 0.977384  7.48438
     34 1.39926 1404.75
 12.1875 -4.48113       27
 1457.25 0.994838  16.8281
   27 1.237  1517
  21.4375 -0.423242        31
   1596 1.18682 26.1406
     26  1.0742 1702.75
 30.7188 -3.98808       24
 1822.5 1.13446 35.4375
      25 0.911116   1724.5
 40.2188 -2.37365       30
 1615.5 1.15192 44.9375
     27 0.74531  1528.5
 49.7188 -5.61123       26
1458.75 1.06465 54.4375
      32 0.580049   1403.5
 59.1406 -3.69137       30
 1361.5  1.0472 63.7969
     33 0.41697  1332.5
 68.4688 -2.62236       31
  1309.5 0.977384  73.2344
      34 0.252255   1298.5
 77.8438 -2.22966       33
 1297.75 0.994838  82.5781
       32 0.0883573    1303.5
 87.2969 -2.42601       33
  1318.5 0.994838  91.9375
        31 -0.0749946     1340.5
 96.5781 -3.27249       33
  1378.5 0.977384  101.266
       29 -0.237528   1424.25
 105.906 -4.96546       32
   1487 1.09956 110.516
       25 -0.398426    1557.5
 115.078 -1.18682       24
1649.75 1.11701 119.719
       22 -0.558778    1767.5
 124.359 -5.36689       20
   1915 1.22173 128.969
       18 -0.720494    2105.5
 133.562 -5.93412       17
2365.25 1.32645 138.188
       23 -0.880573    2645.5
 142.844 -6.06066       22
   2546 1.15192 147.547
      25 -1.04529     2465
 152.188 -3.27249       27
2409.25 1.09956 157.047
      26 -1.21109  2368.25
 161.719 -1.76715       29
 2342.5  1.0472 166.453
      30 -1.37472     2334
 171.109 -1.45735       29
   2338  1.0821 175.859
      26 -1.53889  2364.25
 180.422 -2.29947       27
   2405  1.0821 185.125
      26 -1.70061     2458
 189.781 -4.19752       22
2542.25 1.16937 194.438
     15 -1.8645 2410.75
 199.234 -6.02575       18
 2080.5 1.20428 204.031
      22 -2.03167   1853.5
 208.781 -4.01862       23
 1686.5 1.11701 213.562
     24 -2.1983 1539.25
 218.359 -5.56324       27
1437.75  1.0472 223.109
      27 -2.36492     1354
 227.766 -2.62672       28
 1286.5 1.02974 232.484
      29 -2.52882     1234
  237.234 -0.733038        33
   1194  1.0821 241.906
      30 -2.69326  1165.75
 246.672 -5.95157       33
 1140.75 0.959931  251.344
      34 -2.85689  1128.25
     256 -5.52397       35
 1124.25 0.977384  260.688
      34 -3.01997  1126.75
 265.391 -5.66796       32
 1140.5  1.0472 270.031
      29 -3.18304   1159.5
   274.719 -0.0305433         33
 1189.25 0.977384  279.297
      33 -3.34503  1222.25
 284.016 -1.32645       30
1269.25  1.0472 288.578
      29 -3.50729  1331.25
 293.219 -3.39903       28
1407.25 1.13446 297.875
      24 -3.66628  1502.75
  302.297 -0.471239        24
1622.25 1.16937 306.875
      27 -3.82582  1694.75
311.594 -1.9155      28
 1587.5 1.11701 316.281
      26 -3.98999  1506.25
 320.969 -5.34507       29
 1444.5  1.0472 325.859
      34 -4.15797   1392.5
 330.578 -3.56483       30
   1356  1.0472 335.312
      32 -4.32242  1329.25
 340.016 -2.60054       33
   1313 1.01229 344.672
      33 -4.48522   1306.5
 349.391 -2.29074       33
1307.25 1.01229 354.141
